ply
format ascii 1.0
comment VCGLIB generated
element vertex 1285
property float x
property float y
property float z
element face 0
property list uchar int vertex_indices
end_header
1.54869 -0.48943 -2.90153 
1.71778 1.68352 -0.272797 
1.59324 0.663947 -2.86394 
1.58266 -2.13574 -1.62994 
1.54744 0.319283 -3.34866 
1.52358 -1.76607 -2.10546 
1.56535 -2.05554 -3.45498 
1.62543 -2.05874 -2.76079 
1.7007 1.6903 -0.73352 
1.58547 0.96148 -2.82143 
1.56936 -0.843406 -2.01153 
1.82198 2.35998 -1.42629 
1.59217 0.424061 -2.5939 
1.62931 1.24091 -2.18536 
1.84815 2.04849 -0.173858 
1.48755 -1.42526 -3.39038 
1.66563 0.993211 -0.96899 
1.80931 2.19424 -0.930118 
1.57102 -0.968584 -1.76404 
1.70754 1.93057 -1.64407 
1.58813 0.993392 -2.68659 
1.72403 1.47457 -0.0318687 
1.58104 -1.76114 -0.720761 
1.58275 0.557649 -2.89805 
1.62599 -0.027202 -1.1005 
1.61902 -1.80267 0.327252 
1.54422 -1.18845 -2.36605 
1.58593 0.775199 -3.02084 
1.58033 0.666125 -3.00139 
1.65159 1.23059 -1.79376 
1.53868 -1.76125 -1.99986 
1.59181 0.771719 -2.83406 
1.70604 -2.12044 -0.680134 
1.63835 -0.570285 -0.02879 
1.69061 -2.1329 -0.932829 
1.73357 1.88829 -0.296531 
1.82749 2.03976 -0.345863 
1.58736 -1.41889 -1.05014 
1.58266 -1.86614 -0.142017 
1.55966 -2.1101 -2.44747 
1.52102 -1.54949 -2.55003 
1.79661 2.28292 -2.35679 
1.59921 -0.49216 -1.25199 
1.5468 -0.171512 -3.09606 
1.58813 0.818523 -2.74493 
1.62733 -0.380578 -0.613268 
1.67476 0.780634 -0.278432 
1.68262 1.34318 -0.734293 
1.54284 -0.962392 -2.35351 
1.50132 -0.953383 -3.40246 
1.70833 1.06162 0.200418 
1.69491 0.980672 -0.0307814 
1.56013 -1.06988 -1.93223 
1.63671 1.35303 -2.36967 
1.62534 -0.028399 -0.990337 
1.64085 -0.705058 0.0900429 
1.74607 1.91437 -0.417299 
1.6609 0.311524 -0.149311 
1.55838 -0.846109 -2.27079 
1.63377 -0.94453 0.206947 
1.61912 -0.497402 -0.719754 
1.50726 -1.44205 -3.05981 
1.54842 0.541431 -3.61597 
1.55047 -1.07403 -2.23715 
1.52995 -0.189333 -3.31089 
1.54647 -1.53764 -1.84899 
1.69295 1.72668 0.393267 
1.54405 -1.64891 -1.77699 
1.82083 2.05539 -0.706542 
1.69603 1.11425 -0.155138 
1.60044 -1.87624 -0.0378429 
1.56817 -0.606732 -2.05221 
1.82547 2.25794 0.302715 
1.57118 -0.950059 -2.01376 
1.55021 -0.499365 -2.72217 
1.54335 0.42103 -3.6199 
1.60556 -0.259519 -1.39978 
1.78762 2.04889 -1.53024 
1.5881 0.192322 -2.28477 
1.73015 1.93581 -1.20245 
1.58862 1.52035 -3.17878 
1.71402 2.01909 -2.79118 
1.57847 -1.88722 -0.335079 
1.63163 -0.608554 -0.140523 
1.70715 0.486252 0.432282 
1.61351 -0.720239 -0.59812 
1.59106 -0.158949 -2.33511 
1.698 1.69315 -0.979946 
1.70784 0.974958 0.0861385 
1.60267 0.659505 -2.40705 
1.74753 2.1667 -1.56024 
1.59569 -1.07263 -1.0356 
1.64693 0.315676 -0.741758 
1.56923 -1.30151 -1.50835 
1.58439 1.44142 -3.55289 
1.684 0.212682 0.315196 
1.71566 1.30325 0.202323 
1.65589 0.0768397 -0.0393435 
1.6789 -2.12144 -1.16631 
1.71902 1.27015 0.318881 
1.58869 1.28814 -3.10991 
1.58626 -2.10238 -2.20396 
1.59507 -0.375063 -1.36372 
1.5933 1.11093 -3.23895 
1.68987 1.57258 -1.08917 
1.70068 0.903587 0.203054 
1.57936 -0.492145 -1.8891 
1.63523 -0.143887 -0.478623 
1.56312 -0.730358 -2.17742 
1.5907 -1.55364 -1.17807 
1.59975 -0.374179 -1.50178 
1.5034 -1.55324 -3.04002 
1.6399 1.88037 -2.37092 
1.58402 -0.496123 -1.55125 
1.58155 1.47528 -3.41729 
1.66908 1.23589 -1.23355 
1.60734 0.0406125 -1.56807 
1.81967 2.13394 -1.31908 
1.62554 1.81026 -3.03486 
1.79727 2.16268 0.420818 
1.65938 1.00439 -1.43458 
1.61503 0.0437818 -1.44392 
1.76041 2.20445 0.211635 
1.58866 -0.959511 -1.06507 
1.58766 -0.627303 -1.43156 
1.6451 0.31638 -0.635662 
1.55108 -0.346983 -3.09783 
1.65863 1.3487 -1.69347 
1.58701 -1.36508 -0.611659 
1.60989 0.915885 -2.60939 
1.59288 -1.68591 -0.841692 
1.616 0.777323 -2.27031 
1.70336 1.39471 0.0318218 
1.67032 -0.140994 0.320648 
1.5034 -1.78262 -2.91145 
1.53847 -0.969155 -2.56999 
1.56199 -0.964835 -1.87905 
1.55091 -0.605062 -2.64486 
1.66247 0.207871 -0.0316985 
1.66268 -2.04547 -1.29316 
1.84714 2.01728 0.0835568 
1.59533 -1.92051 -0.583854 
1.56993 0.990911 -3.48048 
1.52795 -0.522038 -3.30931 
1.56297 -1.61538 -1.66644 
1.81797 2.1521 -1.4602 
1.57129 -2.08285 -3.16559 
1.59796 -0.376551 -1.65893 
1.6009 -1.98713 -2.85704 
1.5639 -1.92435 -2.43191 
1.70243 1.51188 -0.394334 
1.55879 0.00866116 -2.84057 
1.65271 0.0717114 -0.272407 
1.69939 0.810669 0.312321 
1.80717 2.38248 -2.28407 
1.54023 0.314141 -3.62335 
1.6879 0.774834 -0.154861 
1.50888 -0.382275 -3.44597 
1.52735 -1.43451 -2.45309 
1.58785 -0.160596 -1.99145 
1.58732 0.874621 -3.10447 
1.62295 -2.10656 -2.3415 
1.68581 0.561994 0.0851907 
1.53634 0.203549 -3.62201 
1.70499 1.67485 -0.613757 
1.61435 1.01087 -2.55262 
1.51337 -0.951851 -3.26018 
1.55324 -0.609923 -2.38541 
1.65753 0.895323 -1.36367 
1.71371 1.04712 0.317689 
1.71066 -2.08976 -0.153821 
1.60389 -0.853231 -1.18465 
1.486 -1.43369 -3.7012 
1.70518 1.8202 -0.197417 
1.65393 0.204288 -0.6137 
1.6674 1.67586 -1.66607 
1.60431 -0.61182 -1.0597 
1.69412 1.40803 -0.394074 
1.59689 0.885784 -2.90918 
1.69326 1.45929 -0.743303 
1.59299 -1.44814 -1.23189 
1.51302 -0.143164 -3.64616 
1.58169 1.01166 -3.28615 
1.59752 1.30112 -3.54082 
1.58624 0.710595 -2.74721 
1.56059 -1.64944 -1.40854 
1.50966 -1.31977 -2.91392 
1.7914 2.36353 -2.51079 
1.60537 0.779501 -2.64522 
1.59191 -1.30761 -1.10121 
1.5983 -0.83401 -1.43238 
1.58703 1.33339 -3.40658 
1.59367 -0.593299 -1.52713 
1.58256 -1.53348 -0.925199 
1.59299 -1.79803 -0.617846 
1.62353 -0.729479 -0.487298 
1.59363 -1.21356 -1.39924 
1.68111 1.85484 -0.98003 
1.60131 -0.258901 -1.7306 
1.58921 -1.68323 -0.361385 
1.54523 -0.00311356 -3.31141 
1.65381 1.11803 -1.66946 
1.67051 0.0894415 0.198969 
1.68938 1.74747 -1.07664 
1.56339 -1.41703 -1.54313 
1.62841 0.435194 -1.55699 
1.66261 0.885802 -1.09677 
1.62059 -0.605814 -0.594321 
1.70476 1.48613 -0.271216 
1.79222 2.0071 -0.893616 
1.60537 -1.41643 -0.359228 
1.63107 1.12046 -2.14735 
1.57691 -1.91659 -1.71733 
1.58978 -0.841118 -1.71961 
1.61662 1.81285 -3.57802 
1.696 1.5467 -0.6277 
1.71156 -2.11964 -0.485319 
1.70445 1.50367 -0.149103 
1.58272 1.12661 -3.07962 
1.62433 -0.14264 -0.811447 
1.61224 -0.593322 -1.1654 
1.58377 -0.611167 -1.85975 
1.60627 0.430654 -2.15138 
1.60231 -1.67082 -0.135663 
1.6546 1.00228 -1.70159 
1.58919 -0.530057 -1.40099 
1.66818 0.424208 -0.381495 
1.56338 -1.08727 -2.09769 
1.59183 -1.29944 -0.82658 
1.67449 0.887764 -0.736019 
1.80698 2.30335 -2.2213 
1.6195 -1.03562 -0.0292323 
1.68562 1.12044 -0.627322 
1.51424 -1.434 -2.71333 
1.63657 0.204213 -1.09774 
1.61417 -1.90799 0.0772229 
1.54943 -0.377929 -2.83391 
1.61079 1.47594 -3.08803 
1.58827 -0.043823 -2.03404 
1.62799 -0.262979 -0.609536 
1.59063 0.561414 -2.78955 
1.48714 -1.44604 -3.58891 
1.84339 2.20305 -0.503373 
1.71282 1.83931 -0.03082 
1.6286 -0.609335 -0.371978 
1.56758 -0.723645 -1.97208 
1.57419 -1.41389 -1.41246 
1.58135 -1.66296 -0.742708 
1.81956 2.16803 0.0952234 
1.64073 0.0662134 -0.504839 
1.55271 -0.605925 -2.48615 
1.61513 -1.54548 0.104528 
1.58688 1.09215 -2.77631 
1.68619 1.23218 -0.621418 
1.64167 1.33436 -2.04026 
1.6005 0.432866 -2.38304 
1.84403 2.04016 0.442622 
1.63979 -2.00429 -1.4969 
1.59411 -0.256328 -2.04591 
1.60557 -1.30856 -0.379678 
1.57172 -1.76107 -1.04906 
1.70749 1.66339 -0.397034 
1.61637 -0.380124 -1.04814 
1.56785 0.0145089 -2.60932 
1.59691 -0.713821 -1.49432 
1.59772 -1.04891 -1.13462 
1.6123 -1.42672 0.0905621 
1.83094 1.9765 0.314041 
1.72589 1.92043 -0.887668 
1.7089 1.73565 -0.142669 
1.51888 -1.7887 -2.34323 
1.56429 -0.139851 -2.85318 
1.67405 -2.10304 -1.66714 
1.72303 1.96656 -1.90162 
1.61092 -0.712734 -1.0813 
1.60676 -0.724157 -0.934123 
1.68973 -2.11038 -0.819818 
1.59762 -1.92067 -0.458695 
1.69685 -2.05143 0.189695 
1.6416 0.435316 -0.986853 
1.54318 -0.28044 -2.98185 
1.6216 -1.07799 -0.144596 
1.57806 -0.492194 -2.07644 
1.58823 -0.743875 -1.34452 
1.66356 1.80495 -1.82383 
1.61359 0.54337 -1.92018 
1.67416 1.86927 -1.31744 
1.54484 -1.76176 -1.63315 
1.58467 0.999551 -2.9435 
1.65327 -0.2586 -0.14416 
1.62193 -2.09297 -3.26357 
1.57756 0.435691 -2.90907 
1.716 2.35065 -3.55011 
1.60063 -1.82562 -0.502474 
1.71555 0.916103 0.432688 
1.59531 -1.53776 -0.483452 
1.59935 -0.143789 -1.48745 
1.65805 -0.140592 0.0882344 
1.56923 -1.9415 -2.608 
1.62334 -1.01491 0.0881699 
1.68369 0.452553 0.202581 
1.58181 0.307236 -2.59309 
1.76649 2.38853 -3.23843 
1.77323 2.26243 -2.90771 
1.64114 1.92578 -3.30917 
1.78278 2.03074 -1.34433 
1.56497 -1.76724 -1.16429 
1.61413 -0.376563 -0.929906 
1.60962 -0.496639 -0.947258 
1.64208 1.34847 -2.17277 
1.59651 -0.830281 -1.28583 
1.7052 1.86627 -0.613746 
1.61304 -1.76263 -0.0305121 
1.56937 -1.89278 -1.24079 
1.58837 -1.38121 -0.733025 
1.52703 -0.409168 -3.24678 
1.64535 0.775413 -1.45397 
1.68886 0.567375 0.201673 
1.65216 0.0900143 -0.143222 
1.60341 -0.533913 -1.78545 
1.68721 1.22447 -0.390772 
1.62157 0.318752 -1.68134 
1.61373 -0.838053 -0.374023 
1.81929 2.09005 -0.507263 
1.7819 2.38781 -2.82929 
1.86373 2.1765 0.199788 
1.61737 1.90254 -3.53325 
1.59979 0.0346355 -1.8101 
1.64119 -0.485625 0.0898841 
1.6962 1.69175 -0.872103 
1.68688 1.47372 -0.998778 
1.59316 -0.0356575 -1.90028 
1.61708 -0.843693 -0.26011 
1.70612 0.342236 0.389412 
1.62528 -1.27028 0.088913 
1.61455 -1.43141 -0.0218097 
1.50535 -0.403936 -3.60796 
1.57133 0.322644 -2.9749 
1.61546 -0.142238 -1.22387 
1.62932 -1.30598 0.202652 
1.55059 -0.487164 -3.01001 
1.60804 -0.404184 -1.2038 
1.60678 -1.77394 0.213712 
1.56783 -0.494587 -2.36362 
1.64909 0.774127 -1.34709 
1.5674 -1.97897 -3.68914 
1.62381 1.00878 -2.19015 
1.48511 -2.11584 -3.54724 
1.58356 -0.26614 -1.90439 
1.66586 0.996385 -1.08917 
1.5872 -1.68051 -0.634235 
1.50484 -1.80464 -3.04754 
1.68736 0.443679 0.315989 
1.70225 1.34998 -0.510988 
1.57884 -0.278921 -2.15636 
1.49045 -1.82253 -3.55694 
1.63089 0.203577 -1.26006 
1.62918 -0.494118 -0.492178 
1.50622 -0.836339 -3.31641 
1.61857 -1.60785 0.208078 
1.57261 -1.0782 -1.41596 
1.75183 2.14339 0.317071 
1.63885 -1.19312 0.229111 
1.79554 2.3492 -1.75999 
1.49164 -1.69733 -3.43456 
1.70251 1.23695 0.0968485 
1.76276 2.2792 -3.13597 
1.66414 1.81471 -2.06257 
1.73468 1.80344 0.203267 
1.61852 0.204809 -1.60792 
1.55753 -1.30909 -1.74912 
1.6397 0.781522 -1.59529 
1.63018 0.05783 -0.86073 
1.62765 1.3553 -2.64543 
1.57306 -1.18361 -1.54264 
1.62536 -1.46512 0.205192 
1.70258 1.82797 -0.711541 
1.81952 2.14022 -1.21894 
1.6197 -0.258822 -0.807748 
1.52617 -0.727208 -3.11388 
1.62233 -0.0935037 -1.31261 
1.59307 0.0797442 -2.52784 
1.62928 -0.373287 -0.374569 
1.59609 1.56586 -3.47908 
1.60762 -0.130207 -1.67675 
1.46186 -2.14883 -3.724 
1.57654 -2.10608 -2.08558 
1.68048 1.69256 -1.23808 
1.69935 1.95906 -2.28418 
1.6443 1.5764 -2.17713 
1.5923 -1.94131 -1.84225 
1.61972 0.895107 -2.06806 
1.58225 -0.249059 -2.4044 
1.70936 0.590867 0.441809 
1.66928 1.82525 -1.71186 
1.58879 -0.932762 -1.34077 
1.70775 1.26708 -0.0281031 
1.58796 0.491679 -2.46861 
1.62587 -0.491529 -0.36855 
1.65618 -0.138148 0.204659 
1.57055 0.427885 -3.16241 
1.58355 0.895066 -3.24347 
1.64238 0.550273 -1.23946 
1.57908 0.919687 -3.34852 
1.75629 2.01673 -1.77014 
1.62643 0.317727 -1.44511 
1.83412 2.24629 -0.015449 
1.72321 1.02273 0.433748 
1.58916 -1.03231 -0.941041 
1.55143 -1.3049 -1.97482 
1.62416 0.314476 -1.31596 
1.54807 -1.64985 -1.88088 
1.48524 -1.54604 -3.38195 
1.58546 -0.0408775 -2.41848 
1.61687 -1.93462 0.209772 
1.59174 1.2438 -2.98557 
1.58533 0.587929 -2.68722 
1.56514 0.547855 -3.43874 
1.6879 0.705365 0.320536 
1.70642 1.15421 -0.0439146 
1.61296 -0.956758 -0.482997 
1.5707 -1.15892 -1.78223 
1.61923 -0.324767 -1.27263 
1.48801 -1.30644 -3.39032 
1.5794 -0.375288 -2.00662 
1.56142 0.22238 -3.20022 
1.58771 1.48407 -3.28544 
1.59082 0.371533 -2.7352 
1.5861 0.107166 -2.22451 
1.59253 1.233 -3.36615 
1.54499 -0.283994 -2.71555 
1.65526 0.425162 -0.616343 
1.60276 -1.77939 0.102043 
1.5526 0.186651 -3.40915 
1.73921 2.22096 -0.170307 
1.61823 -1.66132 0.0896107 
1.56143 -1.32192 -1.87503 
1.52312 -1.21214 -2.91381 
1.81978 2.24451 -1.17195 
1.55338 -1.20428 -2.23077 
1.56997 -1.66244 -1.28938 
1.68176 -2.12331 -1.0336 
1.67237 1.00198 -0.860378 
1.60835 1.58938 -3.25299 
1.64391 -0.816849 0.207238 
1.65883 1.34012 -1.55342 
1.78314 2.39415 -2.9369 
1.59213 -0.00705513 -2.13348 
1.58404 1.208 -3.26728 
1.61624 1.69559 -3.26779 
1.6774 1.23418 -0.874725 
1.78557 2.17485 -2.42986 
1.77052 2.29003 -0.62905 
1.56818 0.787703 -3.44101 
1.6671 1.80271 -1.9379 
1.59662 -1.1724 -1.08727 
1.59275 0.0947715 -2.38569 
1.53308 0.109199 -3.49024 
1.64634 0.547965 -1.10301 
1.48695 -1.68242 -3.54022 
1.64719 -0.357105 0.0869301 
1.62645 0.780098 -2.01603 
1.84752 2.13048 -0.394107 
1.51886 -1.30221 -2.5754 
1.58581 -1.90407 -0.707766 
1.55545 -0.726077 -2.4067 
1.62419 -0.952972 -0.361593 
1.52034 -0.722142 -3.29412 
1.54981 -1.85619 -1.43345 
1.5799 0.199059 -2.81926 
1.57219 0.187039 -2.69415 
1.64533 -2.00916 -0.955441 
1.6488 -2.01128 -0.813731 
1.60783 0.165572 -2.13049 
1.50141 -1.32704 -3.05462 
1.68155 1.81417 -1.47726 
1.58383 0.668436 -2.54975 
1.69901 0.827211 0.08573 
1.58232 -1.64765 -0.955107 
1.59095 -0.974494 -1.61011 
1.72125 1.52537 0.202513 
1.57862 -0.0115087 -2.23474 
1.62111 -1.95096 -0.261501 
1.72507 1.35509 0.44202 
1.70611 2.04547 -3.41463 
1.57823 -2.11266 -1.77746 
1.58776 1.40194 -3.18644 
1.6449 -0.10162 -0.380344 
1.55922 0.428017 -3.402 
1.60045 -1.20655 -0.723295 
1.5784 -1.6249 -1.08171 
1.62817 -0.366079 -0.717769 
1.71014 1.58159 -0.0825409 
1.76499 1.9647 -0.76043 
1.78203 2.28225 -2.7098 
1.86243 2.16102 0.316876 
1.62094 -0.144239 -1.05714 
1.53389 -1.54353 -2.09718 
1.76877 2.39631 -3.12178 
1.62824 -0.0288994 -0.721583 
1.68293 1.57629 -1.33081 
1.57948 -1.90498 -1.09531 
1.65339 1.46281 -2.03 
1.51226 -1.52086 -3.13648 
1.63801 1.2262 -2.04817 
1.64272 1.49102 -2.36262 
1.57851 -0.735232 -1.84509 
1.54875 -2.0993 -2.83502 
1.52957 -1.6387 -2.37091 
1.63703 0.773527 -1.81314 
1.56975 -1.90065 -1.5316 
1.61371 -0.0740787 -1.41547 
1.53948 -1.31989 -2.34763 
1.64002 0.435119 -1.09996 
1.56072 -0.373573 -2.49452 
1.60991 -0.953217 -0.609176 
1.61407 -0.260154 -1.18071 
1.61039 1.34743 -2.8659 
1.66409 -0.806714 0.437631 
1.64263 1.12406 -2.0386 
1.56667 0.322292 -3.20255 
1.66271 0.774173 -0.741331 
1.57566 1.14133 -3.40271 
1.58299 -1.52869 -1.30661 
1.68113 1.69136 -1.46013 
1.83563 2.30753 -0.859106 
1.61609 1.23661 -2.71362 
1.5019 -0.518235 -3.58492 
1.6164 1.01031 -2.3861 
1.50876 -1.54359 -2.7185 
1.65498 1.00035 -1.56454 
1.66665 0.0880795 0.0870713 
1.73011 1.24856 0.425925 
1.83484 2.1184 -0.869369 
1.79192 2.17265 -2.2246 
1.65658 -2.01252 -0.609952 
1.57782 1.19219 -3.16402 
1.58849 -1.6438 -0.456028 
1.52761 -0.473039 -3.40593 
1.51266 -2.12351 -3.02198 
1.60731 -0.25933 -1.07795 
1.62603 -2.1094 -1.99412 
1.69384 0.204718 0.428769 
1.58501 0.37096 -2.27709 
1.63148 1.88389 -3.15261 
1.64505 0.664414 -1.24055 
1.60516 -0.260729 -1.5037 
1.68009 0.322342 0.200035 
1.53221 -0.496982 -3.1716 
1.55926 0.662649 -3.4468 
1.50438 -1.43433 -2.92854 
1.50218 -1.06665 -3.41608 
1.56098 0.0932766 -3.20568 
1.83926 2.1531 -0.5987 
1.58599 -1.33862 -1.19621 
1.67163 1.93131 -2.04035 
1.60862 0.315798 -2.03772 
1.64092 -0.0268007 -0.587205 
1.5785 0.22544 -2.93463 
1.60387 -1.07177 -0.719247 
1.73461 1.83563 0.318152 
1.61798 0.896333 -2.43392 
1.58483 -1.14856 -1.19563 
1.65483 0.545777 -0.869328 
1.80287 2.28673 -1.34387 
1.63333 -0.732418 -0.0257813 
1.59515 -1.78628 -0.260565 
1.65631 -0.477871 0.323723 
1.56875 -1.95413 -2.9782 
1.70862 1.36581 -0.300069 
1.5956 0.985983 -3.05139 
1.64426 -0.569766 0.203619 
1.6222 1.12821 -2.4287 
1.60114 -2.01948 -3.07504 
1.67392 1.11861 -1.20948 
1.58932 -2.09826 -2.95005 
1.55912 -1.41976 -1.71667 
1.61439 0.790553 -2.147 
1.56343 0.206845 -3.03446 
1.53417 -0.612551 -3.04837 
1.80357 1.97868 0.188541 
1.80883 2.29491 -1.54001 
1.51496 -1.08084 -2.98453 
1.63476 0.670497 -1.74227 
1.6015 -0.143885 -1.85513 
1.54606 -0.843668 -2.37792 
1.54919 -1.42422 -1.83053 
1.59133 -1.08762 -1.61918 
1.7283 1.68589 -0.0354508 
1.55343 -0.16185 -2.97854 
1.63208 -0.375309 -0.254037 
1.5669 0.114788 -3.07914 
1.63542 0.420951 -1.44065 
1.67605 1.6071 0.431989 
1.6288 1.59055 -2.90243 
1.59943 0.316344 -2.47054 
1.83017 2.25828 0.447486 
1.81762 2.19515 -0.781766 
1.63628 -1.07451 0.214038 
1.54977 -0.727924 -2.55561 
1.64235 -0.689822 0.205849 
1.61333 -0.964169 -0.137272 
1.59314 -0.894099 -1.54788 
1.6588 -0.478977 0.441398 
1.63197 -0.728157 -0.1361 
1.68268 0.880329 -0.0335168 
1.50341 -0.779538 -3.64765 
1.74971 2.16285 -3.40457 
1.60163 -0.84109 -0.961588 
1.61042 -1.31766 -0.258353 
1.62783 1.5639 -2.71496 
1.71664 -2.10698 -0.261532 
1.62846 0.434513 -1.67832 
1.56757 -1.53774 -1.40562 
1.58096 -1.06972 -1.72122 
1.67689 1.91847 -1.80249 
1.59051 -0.683009 -1.66533 
1.61806 0.0929345 -1.66083 
1.66076 1.94575 -2.99225 
1.58874 -1.52096 -0.633872 
1.59089 -0.942061 -1.44326 
1.65104 -0.25161 0.0900613 
1.68929 1.57761 -1.19796 
1.69834 1.2665 -0.26441 
1.65271 1.45926 -1.91625 
1.70082 1.21603 -0.162144 
1.68036 -0.138286 0.43728 
1.53844 -1.88186 -2.23671 
1.50798 -2.13189 -3.23346 
1.7581 2.28467 -3.46657 
1.61022 -0.837292 -0.600087 
1.61395 0.548641 -2.13519 
1.58911 -1.14392 -0.946684 
1.61389 0.661309 -2.14574 
1.52818 -1.19109 -2.64805 
1.512 -1.51466 -3.28138 
1.81418 2.20842 -1.07406 
1.57636 -0.602572 -2.2619 
1.81369 2.26443 -1.82405 
1.62681 0.435405 -1.90994 
1.64773 1.23863 -1.90405 
1.67386 -1.99756 -0.0333055 
1.80545 2.18342 -1.98605 
1.6675 1.59191 -1.60001 
1.79159 2.00469 -0.623653 
1.57668 0.803733 -3.33188 
1.70775 1.11113 0.0680757 
1.60501 1.12705 -2.91195 
1.65124 1.79922 -2.49863 
1.67837 0.084788 0.308022 
1.51731 -1.7665 -2.24005 
1.74854 2.03576 -2.04663 
1.64847 -0.939928 0.326422 
1.48492 -1.67597 -3.26642 
1.57424 -0.262454 -2.27638 
1.55261 -1.90827 -2.12863 
1.58928 1.66719 -3.50396 
1.5301 -0.842177 -2.91501 
1.49708 -1.66415 -2.91867 
1.62984 -0.611194 -0.261014 
1.65258 -0.91717 0.439693 
1.81165 1.99619 -0.0360183 
1.5625 -1.63176 -1.55764 
1.63516 0.431102 -1.31778 
1.76695 2.16604 -0.00320268 
1.64749 1.87567 -2.59904 
1.62281 -0.607537 -0.488257 
1.54727 -0.851366 -2.62789 
1.70495 1.18002 0.205241 
1.61933 -0.499299 -0.840355 
1.66488 0.319877 -0.273884 
1.6722 0.544323 -0.512608 
1.5958 0.561702 -2.54738 
1.66225 0.425253 -0.502614 
1.72356 2.03557 -3.04463 
1.50574 -0.623042 -3.57758 
1.58648 -1.79807 -0.405785 
1.53738 -0.270608 -3.20974 
1.69198 1.11754 -0.732466 
1.49985 -1.61095 -3.18945 
1.59841 -0.12411 -2.10153 
1.68844 1.12731 -0.517361 
1.6888 0.996487 -0.146969 
1.57024 -1.92342 -2.33118 
1.59186 -0.411872 -1.78648 
1.53564 -0.0817333 -3.37594 
1.76714 1.94006 -0.180962 
1.70426 -2.0931 -0.367093 
1.55049 -0.0251099 -3.18535 
1.62323 1.46653 -2.61171 
1.65058 0.202338 -0.390919 
1.77278 2.09177 -2.37445 
1.61427 0.544761 -2.0353 
1.73331 2.05195 -3.14667 
1.54134 -0.721263 -2.9032 
1.63589 0.902311 -1.85154 
1.63074 1.38977 -2.2748 
1.56056 -0.0690146 -3.06802 
1.65531 0.776379 -1.21426 
1.58452 -1.99293 -3.22082 
1.6183 -1.64916 -0.0153527 
1.60832 -1.40248 -0.500089 
1.75192 2.21847 -3.55208 
1.61654 -0.260188 -0.920734 
1.68747 -2.00948 0.301979 
1.57242 -1.23236 -1.66435 
1.68413 -2.00854 0.0793554 
1.62174 1.76716 -3.19445 
1.589 -0.126642 -2.22757 
1.55076 -1.30352 -2.16931 
1.53263 -1.09427 -2.76598 
1.57358 -1.33752 -1.60773 
1.49427 -1.30783 -3.26473 
1.52094 -0.841897 -3.03684 
1.56527 -0.172591 -2.59935 
1.66115 0.319917 -0.390476 
1.8111 2.06011 -1.11574 
1.53153 -1.65513 -2.10699 
1.65995 0.772975 -0.971913 
1.52868 -1.55249 -2.24464 
1.57188 0.532321 -3.14925 
1.62649 1.24121 -2.50315 
1.62421 0.204138 -1.46343 
1.5579 -0.262118 -2.55405 
1.58157 0.189713 -2.47944 
1.57469 -0.947146 -2.13789 
1.63553 0.317934 -1.20466 
1.68036 0.190389 0.0659848 
1.84836 2.16699 -0.294237 
1.58306 -1.91971 -1.35674 
1.77442 2.13919 -2.95232 
1.59846 -1.71385 -0.528626 
1.73274 1.65919 0.324538 
1.78207 2.12329 -2.60187 
1.54371 -0.853441 -2.50553 
1.50893 -1.43335 -2.818 
1.70405 1.81518 -0.41432 
1.78881 2.39047 -2.68554 
1.62467 -1.12754 0.0892483 
1.63577 1.5697 -2.50541 
1.68664 0.88638 -0.153329 
1.51175 -2.15001 -3.43672 
1.54128 -0.735974 -3.00879 
1.69443 1.11171 -0.275382 
1.58928 -1.32039 -0.986368 
1.66386 -1.99936 -0.486966 
1.56397 0.463695 -3.29057 
1.63305 -0.258673 -0.37245 
1.6483 1.33305 -1.86602 
1.77437 2.1394 -2.75682 
1.7532 2.25639 -3.23819 
1.70005 1.96591 -2.15173 
1.68972 1.50731 0.418818 
1.61694 -1.5367 -0.00905696 
1.61097 0.5491 -2.37524 
1.59037 -1.51885 -1.05341 
1.72795 1.51127 0.319901 
1.57024 0.905335 -3.59562 
1.54598 -0.611375 -2.84159 
1.70261 1.35454 -0.0938292 
1.55942 0.0057362 -2.96286 
1.6623 1.23228 -1.1194 
1.48857 -1.33519 -3.63558 
1.54868 -0.266764 -2.86899 
1.78413 2.25586 -2.54102 
1.62566 -0.399507 -0.820877 
1.60145 -1.54878 -0.36086 
1.523 -0.819266 -3.41359 
1.64302 -0.256043 -0.268561 
1.7674 2.17951 -3.0585 
1.50569 -1.6899 -3.07931 
1.64648 1.12238 -1.83265 
1.679 -0.373084 0.450607 
1.62419 -1.57973 0.324833 
1.87799 2.14823 0.485449 
1.5874 -1.0568 -1.24346 
1.54018 -1.08825 -2.43536 
1.6207 0.549744 -1.78438 
1.69156 2.1504 -1.64442 
1.59869 -2.09489 -3.36822 
1.60084 -0.956837 -1.19997 
1.61316 -1.3022 -0.492421 
1.69514 1.34911 -0.200501 
1.71137 1.58426 -0.212075 
1.59163 -0.612011 -1.29929 
1.72533 1.14318 0.431135 
1.80159 2.14325 -1.68551 
1.6604 1.24023 -1.3684 
1.60495 -0.610395 -0.935947 
1.50049 -1.19559 -3.27804 
1.66684 -2.11478 -1.54813 
1.64337 -0.605697 0.0731281 
1.66318 0.537094 -0.381412 
1.63815 0.203189 -0.965572 
1.84031 2.28635 -0.989162 
1.74852 2.07203 -2.87423 
1.67906 0.108552 0.405591 
1.57282 -0.188996 -2.75031 
1.65359 -2.1104 -2.52044 
1.67288 1.81155 -1.59759 
1.49712 -1.52312 -3.4923 
1.69669 0.9492 0.295262 
1.61411 -1.92739 0.355582 
1.65453 1.216 -1.69146 
1.61542 1.11899 -2.53935 
1.58772 0.967339 -3.15348 
1.59432 -1.66201 -0.262183 
1.70617 0.568644 0.332505 
1.60852 0.779571 -2.43174 
1.51098 -1.3828 -3.15157 
1.68389 1.34169 -0.972858 
1.57334 -1.95902 -3.53407 
1.65933 1.34442 -1.43039 
1.76446 1.94793 -0.515938 
1.6098 -1.43277 -0.14335 
1.53651 -1.65594 -1.98191 
1.5858 -1.91001 -0.840892 
1.63471 -0.13513 -0.917492 
1.69294 1.91577 0.444713 
1.69079 0.897036 -0.28056 
1.75067 2.03511 -2.21434 
1.66798 0.419819 -0.146961 
1.59037 -1.04755 -1.5229 
1.67241 1.33469 -1.08389 
1.69671 0.778961 0.205571 
1.63658 0.514723 -1.38321 
1.50293 -2.1631 -3.33735 
1.54845 -0.795188 -2.71354 
1.65915 0.319677 -0.516935 
1.70455 1.78486 -0.819124 
1.66714 1.47165 -1.60291 
1.63213 1.72321 -2.70784 
1.65708 1.68856 -1.82195 
1.62738 1.22592 -2.39049 
1.505 -1.86827 -3.12619 
1.5726 -1.93143 -1.99821 
1.55232 0.660285 -3.60553 
1.80441 2.29616 -1.99008 
1.70979 1.57424 -0.506412 
1.63483 -0.880948 0.128272 
1.6575 1.80245 -2.27865 
1.77334 2.31854 -3.02502 
1.71162 1.73706 -0.495786 
1.6898 1.36244 -0.621271 
1.63429 -1.274 0.32638 
1.49999 -0.725882 -3.544 
1.5766 -0.84785 -1.87326 
1.63598 0.865208 -1.51157 
1.59428 -0.57575 -1.6284 
1.5136 -0.838485 -3.17194 
1.71128 1.92019 -1.06086 
1.53977 -0.934693 -2.7146 
1.62552 -0.490546 -0.607351 
1.53965 -1.76025 -1.7588 
1.52303 -0.603892 -3.41609 
1.5908 -1.98299 -3.33972 
1.7002 1.56697 -0.739663 
1.53907 -1.76349 -1.89274 
1.59972 -1.60913 -0.557671 
1.6117 -0.0806432 -1.57032 
1.52241 -0.610798 -3.24294 
1.61152 0.88987 -2.27057 
1.66335 1.12832 -1.36483 
1.72416 1.55271 0.0832511 
1.51077 -0.261072 -3.50344 
1.71987 1.78841 -0.310373 
1.7204 1.41936 0.205315 
1.64573 -0.329386 -0.0296936 
1.65478 0.194383 -0.147203 
1.59253 -1.29979 -1.2948 
1.60292 -0.47802 -1.68534 
1.67118 0.54297 -0.264604 
1.60075 -1.18894 -0.495973 
1.57108 -0.492339 -2.21155 
1.60318 -1.17141 -0.847306 
1.85565 2.15114 -0.159373 
1.67499 0.666471 -0.396053 
1.59152 -1.42273 -0.836922 
1.53881 -0.783253 -2.82375 
1.64842 -0.20178 0.00327 
1.7299 1.66079 0.203102 
1.66364 -0.0318554 0.0825818 
1.66713 0.317989 0.0380408 
1.71952 1.40866 0.326915 
1.56307 -2.11618 -3.68349 
1.65822 1.40804 -1.77428 
1.51151 -1.76734 -2.46134 
1.69614 1.86925 -0.504402 
1.68175 0.582463 -0.0308752 
1.67808 1.7232 -1.35206 
1.58819 0.442531 -2.80644 
1.67446 1.01233 -0.757055 
1.62079 -1.31568 -0.0265257 
1.6295 -2.11891 -3.04748 
1.47705 -1.69118 -3.68268 
1.53188 -1.33764 -2.73567 
1.64817 0.997158 -1.31541 
1.62776 0.665049 -1.58387 
1.52743 0.0629517 -3.65045 
1.60691 1.34512 -3.015 
1.62424 0.664646 -1.91472 
1.53294 -0.117442 -3.53151 
1.64191 0.433615 -1.20966 
1.62779 1.36596 -2.50501 
1.49655 -0.955396 -3.57455 
1.65275 1.689 -2.1428 
1.57331 -0.828462 -2.115 
1.5889 -1.56344 -0.823811 
1.67945 1.11333 -0.84737 
1.64455 -0.490443 -0.141085 
1.61808 -1.20469 -0.133131 
1.5174 -0.299509 -3.61462 
1.63465 -0.142723 -0.710792 
1.58877 -0.632847 -1.75213 
1.55074 0.321297 -3.4759 
1.58129 1.175 -3.49689 
1.58443 -0.385716 -2.12955 
1.61437 1.63109 -3.39471 
1.67674 0.8865 -0.39527 
1.59415 -1.13392 -1.32272 
1.72031 1.84617 0.0731627 
1.68323 0.734517 -0.0311022 
1.78286 1.9423 0.395273 
1.69196 1.46129 -0.857958 
1.6411 1.5681 -2.04924 
1.60666 0.31969 -2.19161 
1.57645 -0.380197 -1.89354 
1.6679 1.90279 -1.54384 
1.54815 -1.43206 -2.08152 
1.6434 -1.06319 0.327774 
1.6443 -0.0267792 -0.243768 
1.83468 2.09374 -0.0265544 
1.64546 -2.04118 -2.60192 
1.61973 0.449395 -1.77753 
1.49383 -1.84371 -3.43821 
1.66422 0.661874 -0.63273 
1.637 -1.16574 0.34271 
1.5093 -0.88677 -3.49695 
1.48375 -1.57098 -3.58188 
1.58737 -1.8056 -0.814329 
1.65847 -0.25146 0.320401 
1.79472 2.03895 -1.23299 
1.58589 0.164402 -2.58715 
1.65978 -0.361161 0.322008 
1.64107 0.067827 -0.747867 
1.62841 1.60996 -2.61224 
1.51067 -1.79273 -2.74021 
1.50594 -1.19499 -3.11939 
1.68254 1.47447 -1.12579 
1.6311 -0.143152 -0.58295 
1.57729 -0.375172 -2.24611 
1.56277 0.73163 -3.52719 
1.63057 1.74367 -2.81733 
1.61495 -0.0145273 -1.67472 
1.61272 -0.477446 -1.08421 
1.5422 -0.964632 -2.46208 
1.54236 -1.17307 -2.49725 
1.59907 -1.55413 -0.25038 
1.62488 -2.01365 -2.48106 
1.48534 -1.22213 -3.66628 
1.6872 1.83143 -1.22297 
1.78718 2.25478 -1.43935 
1.64134 0.20363 -0.860796 
1.60144 0.0444137 -1.96246 
1.66112 0.887428 -0.982014 
1.62803 -1.19588 0.0104533 
1.68619 1.33704 -0.858019 
1.52478 -0.197967 -3.41613 
1.64532 0.66442 -1.46126 
1.617 -2.10577 -3.53572 
1.62129 0.0493858 -1.21341 
1.78887 2.11922 -2.0988 
1.64342 -0.144166 -0.256645 
1.6064 -0.281051 -1.61278 
1.62529 1.64938 -2.77832 
1.65457 -0.698218 0.320545 
1.62353 -0.876773 -0.0294565 
1.61462 -0.607509 -0.725459 
1.65251 0.429223 -0.854892 
1.59766 -0.0651318 -1.79107 
1.62042 -1.98183 -1.59488 
1.64082 -1.52566 0.436661 
1.60263 -1.54491 -0.131194 
1.57834 -1.43058 -0.9365 
1.50004 -1.86026 -3.33351 
1.7976 2.08669 -1.94718 
1.60998 1.82192 -3.38984 
1.57802 0.661525 -3.28704 
1.48728 -1.08036 -3.66394 
1.57585 -0.108579 -2.67776 
1.67334 0.652331 -0.267582 
1.69273 1.96251 -2.6446 
1.61644 0.318263 -1.85158 
1.53451 -1.42369 -2.27594 
1.67714 2.01757 -3.52177 
1.59996 1.33262 -3.30078 
1.67592 0.536905 -0.148406 
1.62079 -0.724723 -0.713699 
1.76384 2.23564 -2.80158 
1.62302 -1.08066 -0.364302 
1.54384 -1.18924 -2.05919 
1.67758 0.780345 -0.398184 
1.57367 -1.89274 -0.976789 
1.60374 -1.07193 -0.611838 
1.63237 -1.98262 -1.05941 
1.61541 -1.07307 -0.259304 
1.65284 1.57914 -1.93981 
1.53901 -1.31152 -2.45288 
1.65679 -0.575435 0.414425 
1.63379 0.0769671 -1.09124 
1.54479 -1.65754 -2.21111 
1.66961 0.432123 0.023521 
1.66871 0.199009 -0.266143 
1.67266 1.36772 -1.30937 
1.72844 1.82244 0.428096 
1.66821 0.657351 -0.733783 
1.528 -1.44423 -2.55412 
1.52263 -1.88218 -2.91297 
1.64505 0.202886 -0.733878 
1.65131 1.9108 -2.75823 
1.6809 1.22283 -0.732296 
1.52848 -0.952923 -2.91218 
1.58644 0.27412 -2.35913 
1.61856 0.0464102 -1.33683 
1.5804 -0.616842 -2.15308 
1.57885 -0.018051 -2.73946 
1.57894 0.66562 -3.13847 
1.60804 -0.819386 -1.05973 
1.51622 -1.65835 -2.62739 
1.67942 1.57375 -1.4407 
1.53491 -0.313229 -3.32185 
1.66288 0.767489 -0.864321 
1.65562 0.433573 -0.737442 
1.56752 0.103056 -2.89057 
1.74393 1.8982 0.164791 
1.6155 1.13855 -2.65628 
1.53193 -1.10094 -2.87512 
1.68481 1.97925 -2.88707 
1.61761 1.69455 -3.08126 
1.60805 -0.956033 -0.714748 
1.68495 0.72426 0.0891329 
1.61041 -1.31198 -0.137827 
1.67664 1.00207 -0.616127 
1.62957 1.84264 -2.88555 
1.60856 -0.183676 -1.58671 
1.6125 -0.959598 -0.253733 
1.65345 1.10879 -1.54896 
1.58677 0.476613 -2.68371 
1.66073 1.01377 -1.19182 
1.75608 2.2679 -3.35324 
1.80095 2.2789 -2.0926 
1.64268 0.5206 -1.48638 
1.50977 -1.35221 -3.4932 
1.62381 -1.99031 -2.19822 
1.62731 -0.857814 -0.146358 
1.67257 -0.25579 0.442405 
1.67174 0.209656 0.199114 
1.62 1.46277 -2.75368 
1.57656 -1.31308 -1.39313 
1.65819 0.904541 -1.24041 
1.78162 2.23784 -1.73019 
1.61193 -0.834826 -0.731642 
1.58849 -0.797325 -1.59404 
1.71311 1.98076 -2.50625 
1.61469 -0.706783 -0.818127 
1.67097 0.365769 -0.0547297 
1.66583 0.663155 -0.870763 
1.84775 2.08438 0.158297 
1.57529 0.311485 -2.83004 
1.60352 0.546366 -2.27209 
1.68769 1.25072 -0.494115 
1.65485 1.67894 -2.02082 
1.60925 0.774736 -2.54109 
1.56617 0.454357 -3.01277 
1.49493 -0.97996 -3.67603 
1.60681 -0.989994 -0.847687 
1.54827 -0.147378 -3.21313 
1.73134 2.25468 -1.61029 
1.65978 -0.0279797 -0.144486 
1.82406 2.08192 -1.01815 
1.60093 -1.43384 -0.260125 
1.61464 -0.193266 -1.31911 
1.62976 1.70916 -2.92289 
1.62519 -0.725776 -0.371858 
1.53099 -1.64713 -2.48144 
1.62726 1.0022 -2.05342 
1.61959 1.5015 -2.9695 
1.64448 1.71392 -2.42836 
1.51642 -1.20487 -2.79101 
1.5645 -1.7755 -1.28976 
1.53895 -1.04272 -2.64128 
1.62643 1.11859 -2.2724 
1.65074 -0.144989 -0.144815 
1.65864 0.544909 -0.613853 
1.69802 2.02017 -3.24505 
1.54804 -0.488846 -2.50395 
1.6398 0.0697139 -0.965862 
1.65899 -2.04457 -2.06784 
1.66992 0.881871 -0.852748 
1.57405 -1.76024 -1.40382 
1.54029 -1.53437 -2.35737 
1.66907 0.770065 -0.615265 
1.7351 2.10686 -3.51422 
1.67334 1.11857 -0.973406 
1.6648 0.666215 -0.514824 
1.50969 -1.18322 -3.40906 
1.68198 0.483378 -0.0629952 
1.63629 -1.98492 -1.19906 
1.76421 2.14489 -3.17958 
1.64554 1.02051 -1.91204 
1.674 1.33476 -1.20441 
1.64829 -0.37291 0.208703 
1.65382 0.662208 -1.09864 
1.56309 -0.373637 -2.35856 
1.49893 -1.83362 -3.23542 
1.54815 -1.55692 -1.98985 
1.56591 -1.22106 -1.90267 
1.61045 0.204477 -1.98117 
1.68045 0.991792 -0.38175 
1.55459 -1.42807 -1.95052 
1.57883 -1.66381 -1.18406 
1.64077 -0.422417 0.00984136 
1.60535 1.59903 -3.00209 
1.80682 2.16226 -1.84304 
1.56332 0.318279 -3.09139 
1.51014 -1.19713 -3.55032 
1.67115 -2.11071 -1.81875 
1.62606 0.134496 -1.38449 
1.67422 0.653608 -0.154063 
1.64548 0.318346 -0.969734 
1.772 1.9885 -1.01208 
1.67649 -2.10134 -1.37864 
1.65142 -0.810587 0.326409 
1.65548 -2.00278 -0.1708 
1.67393 0.0104111 0.380703 
1.61288 0.139403 -1.90292 
1.60762 0.664779 -2.29282 
1.50469 -1.0828 -3.11654 
1.63282 1.69187 -2.53129 
1.68569 0.999505 -0.270586 
1.51099 -1.08345 -3.54005 
1.6913 1.57625 -0.965617 
1.55427 -0.952394 -2.24665 
1.71006 1.45147 -0.5212 
1.65649 0.777065 -1.09618 
1.57948 0.782085 -3.18683 
1.66337 1.50995 -1.81034 
1.54192 -1.45793 -2.17953 
1.60235 -1.18243 -0.596314 
1.57675 -0.162136 -2.49408 
1.57986 -1.49799 -0.732131 
1.63544 1.46698 -2.17288 
1.60909 -1.19887 -0.262463 
1.56072 -1.73773 -1.50041 
1.61803 -1.1881 -0.372766 
1.65845 1.22784 -1.55261 
1.6446 0.203579 -0.507325 
1.70578 1.57642 -0.314433 
1.50879 -0.701529 -3.43771 
1.59176 -1.77112 -0.937812 
1.84036 2.25519 -0.693392 
1.6387 0.523947 -1.63231 
1.65061 0.542238 -0.987024 
1.47944 -1.55834 -3.68905 
1.64656 0.0689204 -0.390954 
1.77853 2.38274 -2.39538 
1.61354 0.429173 -2.02333 
1.67729 0.894478 -0.625781 
1.63243 -0.374583 -0.490036 
1.63346 0.900921 -1.95368 
1.66247 1.8113 -2.17103 
1.60848 1.22496 -2.84325 
1.61813 1.2728 -2.28433 
1.63403 -1.41171 0.325688 
1.51446 -1.85768 -3.65435 
1.50096 -1.543 -2.90697 
1.7235 1.74042 0.0502535 
1.66071 0.543312 -0.734648 
1.60918 -1.07629 -0.492737 
1.51857 -0.962888 -3.10863 
1.56268 -0.502537 -2.6096 
1.57934 -0.0815854 -2.5552 
1.52105 -0.0093221 -3.53702 
1.65693 -0.252726 0.205326 
1.6262 0.650118 -2.04079 
1.68103 0.996062 -0.501175 
1.56894 -0.398442 -2.63343 
1.63121 0.795685 -1.91346 
1.62696 -1.67718 0.289875 
1.62436 1.4703 -2.46527 
1.5641 -1.53053 -1.54378 
1.50019 -1.65173 -2.80113 
1.63992 0.31594 -1.08426 
1.64186 0.319012 -0.855098 
1.70741 1.15868 0.31008 
1.59142 -0.727618 -1.1947 
1.78376 2.04559 -1.64386 
1.65234 -2.04047 -1.89145 
1.68646 1.1138 -0.399351 
1.60203 -1.25132 -0.913627 
1.64107 1.6719 -2.26976 
1.52908 -1.21213 -3.0143 
1.56801 0.565908 -3.32191 
1.64134 0.87326 -1.65851 
1.54536 -0.965922 -2.8131 
1.67642 1.47257 -1.35468 
1.66564 0.434668 -0.274347 
1.7415 2.10421 -3.29279 
1.50905 -1.07484 -3.25371 
1.58895 -0.576227 -1.95359 
1.55013 -0.693178 -2.71452 
1.64784 0.646388 -0.971448 
1.56036 -0.702778 -2.27784 
1.64778 -0.378678 -0.14284 
1.62164 -0.725484 -0.258738 
1.61408 1.34833 -2.7623 
1.64368 0.0604369 -0.639957 
1.6108 -0.841068 -0.834618 
1.57061 -1.49684 -1.64733 
1.66274 1.18523 -1.46215 
1.63227 -0.265595 -0.494188 
1.60962 0.144226 -1.78445 
1.63561 -0.489287 -0.26048 
1.63868 1.61338 -2.37641 
1.61667 -0.839001 -0.479511 
1.62445 -1.65276 0.395508 
1.84608 2.25765 -0.341937 
1.50893 -0.878532 -3.68816 
1.67014 1.42569 -1.49468 
1.61541 1.47022 -2.85506 
1.67909 0.890545 -0.500161 
1.56951 -1.93735 -2.71438 
1.66401 0.780516 -0.513868 
1.64565 0.665483 -1.34109 
1.69306 1.56336 -0.865235 
1.67578 0.665311 0.21798 
1.67673 1.23462 -0.985572 
1.63342 -0.0462195 -0.84271 
1.6242 -2.00639 -2.31116 
1.60186 0.0922977 -2.05129 
1.65973 1.58051 -1.71275 
1.54424 0.0177224 -3.43554 
1.78001 1.92721 0.0733292 
1.57369 0.0780713 -2.7021 
1.66697 -0.026728 0.184619 
1.50003 -1.74403 -3.18347 
1.53395 -1.86004 -1.79193 
1.66336 -0.0284846 0.289212 
1.66894 0.386169 0.11265 
1.64287 1.13425 -1.93636 
1.6352 1.77422 -2.59964 
1.5728 -1.05859 -1.82456 
1.55248 0.161513 -3.2947 
1.86083 2.06968 0.266708 
1.57773 -0.712469 -2.07613 
1.51061 -1.40627 -3.27804 
1.55276 0.44408 -3.50883 
1.61209 1.2325 -2.60726 
1.72787 1.65376 0.100706 
1.67062 1.69407 -1.56019 
1.62887 0.331069 -1.55428 
1.61951 0.225352 -1.7246 
1.54577 -1.08275 -2.54436 
1.67286 1.11484 -1.07511 
1.55647 -0.389268 -2.93834 
1.64418 1.55993 -2.28721 
1.65491 -0.109702 -0.0354161 
1.64603 -0.803083 0.0648515 
1.62891 -0.603517 -0.834794 
1.57102 1.05658 -3.55604 
1.5274 -1.85459 -2.04471 
1.5823 0.578271 -3.05738 
1.61137 -1.76991 -0.153732 
1.64281 -0.0258131 -0.460145 
1.65487 -0.596132 0.315999 
1.70863 1.94086 -1.40549 
1.50671 -1.76007 -3.35176 
1.54424 -0.586813 -2.94628 
1.6343 1.02157 -1.80753 
1.67785 1.4853 -1.23576 
1.65602 -2.03245 -1.74799 
1.63212 0.77101 -1.69688 
1.55109 0.886192 -3.49627 
1.54807 -1.52409 -1.74605 
1.62793 0.909409 -2.16735 
